ply
format ascii 1.0
element vertex 478
property float x
property float y
property float z
end_header
0.0053601493127644062 -0.0255767405033111572 0.58437734842300415
0.00799303594976663589 0.130645528435707092 0.654111921787261963
0.00723454076796770096 0.0823613405227661133 0.577597439289093018
-0.0219431407749652863 0.239113733172416687 0.604663729667663574
0.00803188327699899673 0.166676178574562073 0.657845973968505859
0.00773416133597493172 0.209777310490608215 0.634574472904205322
0.00639125145971775055 0.316741704940795898 0.550870180130004883
-0.2515086829662323 0.340323477983474731 0.308164507150650024
0.0048387572169303894 0.419503390789031982 0.516890406608581543
0.00527739664539694786 0.46929633617401123 0.522632420063018799
0.00624664453789591789 0.624068379402160645 0.487059801816940308
0.00520037999376654625 -0.037641037255525589 0.577885866165161133
0.00533805321902036667 -0.0488211363554000854 0.565322399139404297
0.00578218279406428337 -0.0661822929978370667 -0.0603705458343029022
0.00600934447720646858 -0.0643112435936927795 -0.0600791722536087036
0.00451557477936148643 -0.0658512040972709656 0.560631930828094482
0.00444113323464989662 -0.0791134834289550781 0.569259881973266602
0.00382375926710665226 -0.0934743285179138184 0.573388636112213135
0.00715485960245132446 -0.147349700331687927 0.537638723850250244
0.00779163604602217674 0.108300313353538513 0.63486480712890625
-0.0207576677203178406 0.102353788912296295 0.615802943706512451
-0.389742255210876465 0.470418930053710938 0.24175243079662323
-0.150535598397254944 0.300585448741912842 0.446818828582763672
-0.182564660906791687 0.296728760004043579 0.447382539510726929
-0.21493743360042572 0.296283423900604248 0.440973967313766479
-0.260302364826202393 0.314839154481887817 0.415991514921188354
-0.123420670628547668 0.309178918600082397 0.444254636764526367
-0.200200021266937256 0.412544786930084229 0.460917770862579346
-0.160973310470581055 0.407559096813201904 0.460488975048065186
-0.237533912062644958 0.404759675264358521 0.449918508529663086
-0.262302994728088379 0.388080954551696777 0.431210458278656006
-0.290253698825836182 0.288336247205734253 0.389852195978164673
-0.126909077167510986 -0.21318034827709198 0.488367944955825806
-0.263249963521957397 0.346245467662811279 0.336365818977355957
-0.399801582098007202 0.305259436368942261 0.246923699975013733
-0.334012359380722046 0.315420001745223999 0.344192266464233398
-0.167966067790985107 0.139899224042892456 0.479741752147674561
-0.034351736307144165 -0.0177153330296278 0.580717027187347412
-0.0310143847018480301 -0.0486307404935359955 0.560145258903503418
-0.072625480592250824 -0.0306490752846002579 0.561606109142303467
-0.101058676838874817 -0.0439933016896247864 0.538272202014923096
-0.062513791024684906 -0.0515921376645565033 0.543495297431945801
-0.0899306014180183411 -0.0561968311667442322 0.526191651821136475
-0.155901268124580383 -0.0998874306678771973 0.485577851533889771
-0.0198629796504974365 0.130203619599342346 0.650455772876739502
-0.024532439187169075 0.165021911263465881 0.653959453105926514
-0.308544367551803589 0.419447213411331177 0.413515061140060425
-0.097391858696937561 0.235109344124794006 0.493625402450561523
-0.0960593372583389282 0.126761049032211304 0.573161959648132324
-0.0994030013680458069 0.143921464681625366 0.564948737621307373
-0.273884177207946777 0.139350935816764832 0.434944272041320801
-0.0231748651713132858 0.205268919467926025 0.632779538631439209
-0.22576904296875 0.469267189502716064 0.474713325500488281
-0.273843318223953247 0.451063215732574463 0.447452425956726074
-0.346590191125869751 0.533698678016662598 0.321121454238891602
-0.0726606845855712891 0.43388819694519043 0.507333934307098389
-0.128052368760108948 0.38980865478515625 0.451657325029373169
-0.18145906925201416 -0.0664775371551513672 0.481184691190719604
-0.3595447838306427 -0.0720258802175521851 0.236779883503913879
-0.0705150365829467773 0.107316680252552032 0.542462348937988281
-0.0436966009438037872 0.0951856076717376709 0.555549740791320801
-0.142310276627540588 -0.0679826140403747559 0.48777422308921814
-0.134713917970657349 -0.0664148852229118347 0.487817764282226562
-0.292866736650466919 0.473536968231201172 0.427318543195724487
-0.096254296600818634 0.106885097920894623 0.552509605884552002
-0.160364285111427307 0.466829746961593628 0.499591588973999023
-0.166283443570137024 0.495902180671691895 0.499730557203292847
-0.193655967712402344 0.610321223735809326 0.44718131422996521
-0.319722294807434082 0.501856505870819092 0.375938922166824341
-0.176845505833625793 0.550680696964263916 0.47891584038734436
-0.330068886280059814 0.433640420436859131 0.387997895479202271
-0.359295189380645752 0.449142754077911377 0.316937625408172607
-0.0334135033190250397 -0.0344670414924621582 0.573802828788757324
-0.0670081824064254761 -0.0418813005089759827 0.555493831634521484
-0.0954326018691062927 -0.0495358966290950775 0.534699022769927979
-0.0617361217737197876 0.0981619507074356079 0.542857348918914795
-0.13835124671459198 -0.0671406090259552002 0.487706482410430908
-0.119825124740600586 -0.0697063356637954712 0.503744602203369141
-0.129850685596466064 -0.0659915059804916382 0.490741819143295288
-0.0561916381120681763 0.125932842493057251 0.610896468162536621
-0.0856485888361930847 -0.0599276646971702576 0.525291383266448975
-0.0582684464752674103 -0.0570992045104503632 0.536852478981018066
-0.0322336181998252869 -0.0651720315217971802 -0.0568579696118831635
-0.0391142070293426514 -0.147776886820793152 0.536193609237670898
-0.0347108133137226105 -0.092469431459903717 0.571169137954711914
-0.0342279784381389618 -0.0772050991654396057 0.566822528839111328
-0.0322450399398803711 -0.0655130520462989807 0.559142589569091797
-0.0331535115838050842 -0.0633080527186393738 -0.0564793087542057037
-0.087254650890827179 -0.0598742477595806122 0.52377164363861084
-0.09265107661485672 -0.0647808089852333069 0.526252269744873047
-0.0976416915655136108 -0.0721244364976882935 0.528584063053131104
-0.101522110402584076 -0.0809930115938186646 0.53058016300201416
-0.136455520987510681 0.00387774617411196232 0.519002079963684082
-0.401630491018295288 0.124886982142925262 0.215849772095680237
0.00764822354540228844 0.0947324410080909729 0.608356297016143799
-0.108379483222961426 -0.0632960200309753418 0.507456362247467041
-0.11382448673248291 -0.0667413398623466492 0.506814956665039062
-0.0358214378356933594 0.0808319523930549622 0.561249315738677979
-0.0849132835865020752 0.0829192399978637695 0.521418452262878418
-0.0395397096872329712 0.0874690115451812744 0.558688580989837646
-0.134991943836212158 0.211706548929214478 0.474218636751174927
-0.192876413464546204 0.185679271817207336 0.461468219757080078
-0.104548372328281403 0.124221056699752808 0.556919276714324951
-0.283184915781021118 0.58132702112197876 0.389044493436813354
-0.261092036962509155 0.536755263805389404 0.427154958248138428
-0.237984821200370789 0.496255218982696533 0.464375764131546021
-0.124315187335014343 -0.118842326104640961 0.510299801826477051
-0.0835244655609130859 0.483164578676223755 0.51932978630065918
-0.0900062546133995056 0.547300577163696289 0.507251381874084473
-0.100383460521697998 0.621682047843933105 0.478368550539016724
-0.2427176833152771 0.301884233951568604 0.428595483303070068
-0.327345103025436401 0.260045766830444336 0.370657652616500854
-0.105298653244972229 0.320115000009536743 0.4426097571849823
-0.296941488981246948 0.367832750082015991 0.394963771104812622
-0.0726307183504104614 0.259781748056411743 0.512115478515625
-0.077494986355304718 0.146168708801269531 0.599906384944915771
-0.364725202322006226 0.231558531522750854 0.338094800710678101
-0.301370590925216675 0.233796298503875732 0.40316888689994812
-0.255428910255432129 0.221433758735656738 0.432122945785522461
-0.187952920794487 0.229230046272277832 0.450049608945846558
-0.139064282178878784 0.246086567640304565 0.458759158849716187
-0.102339334785938263 0.263900965452194214 0.472115844488143921
-0.0265380796045064926 0.308137655258178711 0.547666609287261963
-0.355844944715499878 0.149900749325752258 0.355040520429611206
-0.324602365493774414 0.371292620897293091 0.372302204370498657
-0.00823542475700378418 0.108900852501392365 0.635529220104217529
-0.0921379178762435913 0.199098601937294006 0.51488196849822998
-0.416501820087432861 0.303159713745117188 0.198988333344459534
-0.0743563622236251831 0.285359561443328857 0.487960159778594971
-0.108282774686813354 0.119050286710262299 0.536899268627166748
-0.27686801552772522 0.338973492383956909 0.395017117261886597
-0.0791409984230995178 0.166681632399559021 0.584490418434143066
-0.385801821947097778 0.0291049499064683914 0.218307092785835266
-0.106374256312847137 0.334114015102386475 0.431755751371383667
-0.0524224229156970978 0.190773546695709229 0.616082310676574707
-0.281417548656463623 -0.148825556039810181 0.346178948879241943
-0.282218426465988159 -0.198086351156234741 0.29738965630531311
-0.39008796215057373 0.1373700350522995 0.27432587742805481
-0.325608998537063599 -0.102497614920139313 0.298618704080581665
-0.382103621959686279 0.383826971054077148 0.269985616207122803
-0.13373248279094696 -0.250244557857513428 0.476520925760269165
-0.00442362250760197639 0.0952970385551452637 0.611051380634307861
-0.123837836086750031 0.169029384851455688 0.490239590406417847
-0.364382475614547729 0.307735919952392578 0.310066342353820801
-0.219528645277023315 0.334394574165344238 0.280119538307189941
-0.192049488425254822 0.334094524383544922 0.271726906299591064
-0.12429654598236084 -0.0760662257671356201 0.504683613777160645
-0.347315728664398193 0.0716781467199325562 0.341260284185409546
-0.0663695260882377625 -0.295212537050247192 0.500284433364868164
-0.177548572421073914 -0.261114537715911865 0.415540516376495361
-0.226521611213684082 -0.237295284867286682 0.359078407287597656
0.00605367124080657959 0.544060468673706055 0.51185297966003418
0.00798371341079473495 -0.298274248838424683 0.509452581405639648
-0.158100590109825134 0.322922199964523315 0.444827407598495483
-0.133662015199661255 0.327364921569824219 0.438441336154937744
-0.115893945097923279 0.330571562051773071 0.431760162115097046
-0.35064321756362915 0.377304881811141968 0.337980687618255615
-0.140875190496444702 0.368691414594650269 0.282249927520751953
-0.169701293110847473 0.379109352827072144 0.27593114972114563
-0.198047220706939697 0.381717950105667114 0.277641981840133667
-0.226867020130157471 0.375856459140777588 0.286382704973220825
-0.245218351483345032 0.365322411060333252 0.300628960132598877
-0.41283532977104187 0.398072391748428345 0.18380226194858551
-0.238146290183067322 0.33694496750831604 0.29272499680519104
0.00651523983106017113 0.0453484952449798584 0.567891359329223633
-0.101795367896556854 0.0268794242292642593 0.534777522087097168
-0.0712761804461479187 0.11669100821018219 0.538672268390655518
-0.0391654856503009796 0.0426665954291820526 0.56582111120223999
0.00548327900469303131 0.363904356956481934 0.519471406936645508
-0.234323829412460327 -0.192322224378585815 0.387479692697525024
-0.186850592494010925 -0.22187042236328125 0.429771274328231812
-0.0691374987363815308 -0.268738746643066406 0.516118705272674561
-0.324678003787994385 -0.148280113935470581 0.25581476092338562
-0.115915872156620026 0.343151062726974487 0.427256137132644653
-0.0479497984051704407 0.251943528652191162 0.561376750469207764
0.00778763135895133018 -0.271854639053344727 0.52840191125869751
-0.125497967004776001 -0.280445724725723267 0.467717587947845459
-0.379206359386444092 0.0501144565641880035 0.254423528909683228
-0.059630323201417923 -0.0570147596299648285 0.535360336303710938
-0.0649001374840736389 -0.0637953653931617737 0.546843290328979492
-0.0683778002858161926 -0.0742831230163574219 0.55312114953994751
-0.0707542672753334045 -0.088152959942817688 0.556875705718994141
-0.0856523662805557251 -0.13614124059677124 0.529907584190368652
-0.113436035811901093 -0.0606705360114574432 0.508708834648132324
-0.119456976652145386 -0.0586464330554008484 0.509854733943939209
-0.124359562993049622 -0.0559945814311504364 0.511541604995727539
-0.163939431309700012 -0.0279901959002017975 0.501453816890716553
-0.298997849225997925 0.055384516716003418 0.400959759950637817
-0.049327116459608078 0.286624819040298462 0.531772255897521973
-0.0754440277814865112 0.36456415057182312 0.452839285135269165
-0.0993387028574943542 0.358889162540435791 0.44047585129737854
-0.107492111623287201 -0.0627143308520317078 0.507059276103973389
-0.306008458137512207 -0.0410558730363845825 0.361039042472839355
-0.039086904376745224 0.362469404935836792 0.49846997857093811
-0.108936488628387451 -0.175876572728157043 0.503440439701080322
0.00757267884910106659 0.245265781879425049 0.605865657329559326
-0.0243741720914840698 0.271497189998626709 0.577574431896209717
0.00664476817473769188 0.278808772563934326 0.580276072025299072
-0.0704351440072059631 0.194818794727325439 0.565966606140136719
0.00706009846180677414 -0.235203027725219727 0.538650155067443848
0.00730051472783088684 -0.190883636474609375 0.535185813903808594
-0.0524801760911941528 -0.189564973115921021 0.526335299015045166
-0.190691962838172913 -0.116643048822879791 0.461520582437515259
-0.140564844012260437 0.0894016474485397339 0.489056259393692017
-0.154177486896514893 -0.1528901606798172 0.47936779260635376
-0.222349241375923157 0.0940490365028381348 0.464997261762619019
-0.173788130283355713 0.0512781590223312378 0.485257416963577271
-0.251665592193603516 0.0302623528987169266 0.441580533981323242
-0.0648680999875068665 -0.233222529292106628 0.526643693447113037
-0.0904195904731750488 0.171267136931419373 0.540063440799713135
-0.222380086779594421 -0.14712660014629364 0.42663237452507019
-0.175740361213684082 -0.183759331703186035 0.453582674264907837
-0.218051552772521973 -0.0720049738883972168 0.45489966869354248
-0.338810890913009644 0.00406782981008291245 0.327166706323623657
-0.262363344430923462 -0.0792052075266838074 0.4072914719581604
-0.361218929290771484 -0.0319589078426361084 0.2611427903175354
-0.201655760407447815 -0.000490841805003583431 0.474621325731277466
-0.0691881850361824036 0.226316064596176147 0.54014664888381958
-0.0661951005458831787 0.132318064570426941 0.608979523181915283
-0.0854718685150146484 0.11696171760559082 0.572151899337768555
-0.0526068545877933502 0.158365294337272644 0.634097874164581299
-0.103311732411384583 0.403193473815917969 0.468148589134216309
-0.159978777170181274 0.429388105869293213 0.475425392389297485
-0.209967926144599915 0.433816313743591309 0.468377888202667236
-0.251967936754226685 0.422869086265563965 0.45198434591293335
-0.281691431999206543 0.401770740747451782 0.427418321371078491
-0.301577538251876831 0.327795267105102539 0.372421532869338989
-0.398725837469100952 0.221654117107391357 0.269830942153930664
-0.269855797290802002 0.273181945085525513 0.409242451190948486
-0.232900321483612061 0.262934654951095581 0.43085634708404541
-0.186934575438499451 0.264946818351745605 0.444560080766677856
-0.144358634948730469 0.274602115154266357 0.448393911123275757
-0.111171461641788483 0.288019359111785889 0.450472503900527954
-0.0878015533089637756 0.300883561372756958 0.456761538982391357
-0.406486958265304565 0.212909996509552002 0.245938971638679504
-0.0836120471358299255 0.10380912572145462 0.551176905632019043
-0.0471468418836593628 0.221209824085235596 0.592760920524597168
-0.0428705327212810516 0.133636817336082458 0.637987852096557617
-0.0237133335322141647 0.112200438976287842 0.632314801216125488
-0.0423172861337661743 0.125434160232543945 0.63102799654006958
-0.0739771947264671326 0.0902191400527954102 0.53632664680480957
-0.0187213700264692307 0.110226206481456757 0.632719755172729492
-0.0142361624166369438 0.0981880128383636475 0.611636996269226074
-0.0926132425665855408 0.332965284585952759 0.44215160608291626
-0.0694049745798110962 0.323218077421188354 0.462338179349899292
-0.054399583488702774 0.315370559692382812 0.494102567434310913
-0.255801796913146973 0.355881571769714355 0.31521981954574585
-0.277549833059310913 0.36682853102684021 0.410500526428222656
0.0363740883767604828 0.240545064210891724 0.589402675628662109
0.258324235677719116 0.347611814737319946 0.319970011711120605
0.0366466008126735687 0.104464039206504822 0.556137800216674805
0.398263663053512573 0.474645614624023438 0.219841808080673218
0.160660356283187866 0.306002378463745117 0.448723495006561279
0.1918448805809021 0.302545279264450073 0.44815412163734436
0.224423676729202271 0.302967965602874756 0.439125627279281616
0.268224626779556274 0.322739988565444946 0.407002151012420654
0.132754981517791748 0.314041256904602051 0.444621831178665161
0.207857266068458557 0.414470911026000977 0.460621148347854614
0.168793171644210815 0.409224271774291992 0.460954517126083374
0.245137274265289307 0.407362252473831177 0.448385179042816162
0.269794046878814697 0.391967743635177612 0.429009437561035156
0.300051629543304443 0.294886410236358643 0.379049241542816162
0.139162927865982056 -0.211525678634643555 0.478679507970809937
0.265483289957046509 0.349222570657730103 0.403557837009429932
0.40419471263885498 0.308055013418197632 0.234639480710029602
0.342627465724945068 0.320111304521560669 0.335221976041793823
0.179305851459503174 0.140846028923988342 0.476496696472167969
0.0454949401319026947 -0.0170557349920272827 0.577399611473083496
0.0415194369852542877 -0.0476505160331726074 0.558113336563110352
0.0828189253807067871 -0.0296018030494451523 0.557379424571990967
0.111539587378501892 -0.0426887497305870056 0.533559024333953857
0.0727691948413848877 -0.051141493022441864 0.541437149047851562
0.100215494632720947 -0.0544119328260421753 0.525672614574432373
0.166814342141151428 -0.0985321253538131714 0.479027003049850464
0.0353495366871356964 0.131184518337249756 0.642251312732696533
0.040220409631729126 0.165133297443389893 0.645109713077545166
0.317733258008956909 0.419177114963531494 0.403549909591674805
0.109524451196193695 0.237077072262763977 0.480760306119918823
0.111629217863082886 0.131299540400505066 0.497279316186904907
0.113737776875495911 0.147951379418373108 0.495995968580245972
0.284799277782440186 0.141761317849159241 0.42755010724067688
0.038075469434261322 0.206842929124832153 0.619915187358856201
0.233543097972869873 0.464388817548751831 0.470558583736419678
0.282761603593826294 0.448090046644210815 0.440931767225265503
0.357944577932357788 0.537472188472747803 0.299971580505371094
0.0816263556480407715 0.430788964033126831 0.503210842609405518
0.137004002928733826 0.392740190029144287 0.452319115400314331
0.193569526076316833 -0.0642115771770477295 0.475185513496398926
0 0 0
0.0837613865733146667 0.108553126454353333 0.557409942150115967
0.0579481534659862518 0.0969201028347015381 0.544899225234985352
0.149890497326850891 -0.0667610242962837219 0.488283634185791016
0.142181918025016785 -0.0652096271514892578 0.489516943693161011
0.301862418651580811 0.469744741916656494 0.418326526880264282
0.110922530293464661 0.110411949455738068 0.497746050357818604
0.167802467942237854 0.461662769317626953 0.495293140411376953
0.174829497933387756 0.489537298679351807 0.497043102979660034
0.207312121987342834 0.611700654029846191 0.438532799482345581
0.329562216997146606 0.503850400447845459 0.358866751194000244
0.188615918159484863 0.550134003162384033 0.473023176193237305
0.339115768671035767 0.434022128582000732 0.369889289140701294
0.368531644344329834 0.452121555805206299 0.294403642416000366
0.0440490879118442535 -0.034047253429889679 0.57083582878112793
0.0776695758104324341 -0.0408241972327232361 0.552296936511993408
0.106244280934333801 -0.0486206524074077606 0.531017780303955078
0.0759669169783592224 0.100337259471416473 0.544040262699127197
0.146974027156829834 -0.0658429041504859924 0.488816738128662109
0.128570452332496643 -0.0688432678580284119 0.494995594024658203
0.138162896037101746 -0.0649952888488769531 0.489736467599868774
0.0715695545077323914 0.127905294299125671 0.598048567771911621
0.0955041125416755676 -0.0584220215678215027 0.519357979297637939
0.0792111828923225403 -0.0645996034145355225 -0.0468124412000179291
0.0449378229677677155 -0.0651459619402885437 -0.0552353300154209137
0.0516327805817127228 -0.145568042993545532 0.535960197448730469
0.0432657748460769653 -0.0912066027522087097 0.569069862365722656
0.042954321950674057 -0.076794944703578949 0.564797580242156982
0.0422388464212417603 -0.0641322135925292969 0.556091845035552979
0.0453823022544384003 -0.0637336969375610352 -0.0549806095659732819
0.097481653094291687 -0.0588230825960636139 0.517850339412689209
0.102526843547821045 -0.0631377249956130981 0.513592541217803955
0.106542959809303284 -0.0709331110119819641 0.518596053123474121
0.110274270176887512 -0.0792820826172828674 0.521013081073760986
0.149250611662864685 0.00552566954866051674 0.510160744190216064
0.438242256641387939 0.134029746055603027 -0.107602991163730621
0.118232540786266327 -0.0621320381760597229 0.503157854080200195
0.122649103403091431 -0.0655314847826957703 0.496106326580047607
0.050305292010307312 0.0819126591086387634 0.550474047660827637
0.0977681577205657959 0.0848418101668357849 0.508404433727264404
0.0538917258381843567 0.0884788110852241516 0.547388911247253418
0.146533384919166565 0.214227735996246338 0.468050360679626465
0.204292058944702148 0.187575235962867737 0.457189679145812988
0.118458487093448639 0.12800319492816925 0.492461740970611572
0.296323478221893311 0.583798885345458984 0.374438017606735229
0.272219538688659668 0.537202060222625732 0.416526496410369873
0.246155485510826111 0.490446209907531738 0.460697978734970093
0.135010361671447754 -0.117167972028255463 0.501611530780792236
0.092862449586391449 0.478089481592178345 0.518017232418060303
0.102557919919490814 0.547132790088653564 0.505323350429534912
0.113930344581604004 0.622577488422393799 0.474963128566741943
0.251818954944610596 0.310035198926925659 0.42336544394493103
0.337303251028060913 0.264414399862289429 0.358424484729766846
0.115576647222042084 0.323994845151901245 0.439330071210861206
0.305049508810043335 0.371592283248901367 0.391331732273101807
0.0847501605749130249 0.262125939130783081 0.493073314428329468
0.092121221125125885 0.14841635525226593 0.576893448829650879
0.374496549367904663 0.235375136137008667 0.320228129625320435
0.31228870153427124 0.238210275769233704 0.393110871315002441
0.266616284847259521 0.224418088793754578 0.426296651363372803
0.199797838926315308 0.232449159026145935 0.446574091911315918
0.150624901056289673 0.249453648924827576 0.453864842653274536
0.113554731011390686 0.268071889877319336 0.459609091281890869
0.0391302816569805145 0.310010015964508057 0.5300179123878479
0.36620408296585083 0.152923956513404846 0.337975651025772095
0.332752376794815063 0.373886704444885254 0.363997340202331543
0.0235332958400249481 0.109827212989330292 0.629148125648498535
0.104940466582775116 0.201128095388412476 0.499189436435699463
0.419608950614929199 0.305671453475952148 0.187013804912567139
0.0867133587598800659 0.289492011070251465 0.467199116945266724
0.121216952800750732 0.122085265815258026 0.490263760089874268
0.283499687910079956 0.34613114595413208 0.393124610185623169
0.094210408627986908 0.170405745506286621 0.526901066303253174
0.416701465845108032 0.0301795843988656998 -0.0197006557136774063
0.115782260894775391 0.338291794061660767 0.426578253507614136
0.0672065988183021545 0.193282485008239746 0.578186273574829102
0.294966548681259155 -0.148228257894515991 0.323381483554840088
0.296429961919784546 -0.198481932282447815 0.252099364995956421
0.401463240385055542 0.140486940741539001 0.230907455086708069
0.340277373790740967 -0.101263165473937988 0.265523463487625122
0.389354348182678223 0.386775672435760498 0.251741856336593628
0.147361800074577332 -0.248517245054244995 0.463476806879043579
0.0196886565536260605 0.0964126065373420715 0.590907037258148193
0.135857388377189636 0.170761659741401672 0.484501570463180542
0.371858149766921997 0.311606675386428833 0.298336416482925415
0.228100225329399109 0.342856436967849731 0.2830047607421875
0.20211203396320343 0.34187549352645874 0.272306561470031738
0.133254826068878174 -0.0738687813282012939 0.495283037424087524
0.361430734395980835 0.0749376267194747925 0.316393256187438965
0.0812384709715843201 -0.294198751449584961 0.491922467947006226
0.190263822674751282 -0.261327654123306274 0.391667842864990234
0.23857581615447998 -0.236705943942070007 0.335823863744735718
0.174204602837562561 0.343278467655181885 0.270668685436248779
0.14871467649936676 0.345684468746185303 0.277419120073318481
0.126206949353218079 0.335775256156921387 0.425621151924133301
0.35953819751739502 0.380030065774917603 0.321046143770217896
0.148321390151977539 0.374574005603790283 0.281142115592956543
0.176917389035224915 0.385792762041091919 0.276955515146255493
0.206159695982933044 0.388127356767654419 0.283364921808242798
0.233504459261894226 0.382414847612380981 0.295225590467453003
0.251700878143310547 0.371686697006225586 0.312297642230987549
0.418448120355606079 0.402541160583496094 0.164804741740226746
0.24575631320476532 0.344847768545150757 0.299260824918746948
0.114592894911766052 0.0284912288188934326 0.525809943675994873
0.0845670104026794434 0.117258608341217041 0.572934985160827637
0.0523890592157840729 0.0436002947390079498 0.559297144412994385
0.245869800448417664 -0.189940899610519409 0.37231975793838501
0.198837205767631531 -0.220563888549804688 0.416686981916427612
0.0833027362823486328 -0.268131613731384277 0.509782612323760986
0 0 0
0.124887354671955109 0.348263174295425415 0.425911247730255127
0.0613532178103923798 0.254080444574356079 0.534948825836181641
0.139093101024627686 -0.279978305101394653 0.452252626419067383
0.395010292530059814 0.0517210960388183594 0.191455543041229248
0.0813567712903022766 -0.0638890564441680908 -0.0458947345614433289
0.0749043077230453491 -0.0631703361868858337 0.539513707160949707
0.0780708640813827515 -0.0737924054265022278 0.546348750591278076
0.079564221203327179 -0.0858962461352348328 0.550531268119812012
0.0977456569671630859 -0.134401381015777588 0.524049878120422363
0.123203054070472717 -0.0602696426212787628 0.504906892776489258
0.128779485821723938 -0.0572940371930599213 0.506812036037445068
0.134041056036949158 -0.0550848580896854401 0.506663382053375244
0.177081182599067688 -0.0267145074903964996 0.492946088314056396
0.311797022819519043 0.0576161369681358337 0.38686072826385498
0.0615295767784118652 0.289436221122741699 0.505878925323486328
0.0850216671824455261 0.367041707038879395 0.448521941900253296
0.10895877331495285 0.362031608819961548 0.440485268831253052
0.115982823073863983 -0.0613515414297580719 0.50615394115447998
0.319553762674331665 -0.0393676906824111938 0.341139703989028931
0.0493066795170307159 0.363753318786621094 0.48514324426651001
0.12071014940738678 -0.174202024936676025 0.497156113386154175
0.0381070300936698914 0.272880285978317261 0.560767292976379395
0.0846446007490158081 0.198157399892807007 0.527510523796081543
0.0655105113983154297 -0.189331486821174622 0.521686017513275146
0.202969819307327271 -0.114955909550189972 0.454205125570297241
0.152070015668869019 0.0910466387867927551 0.486025869846343994
0.165705263614654541 -0.150095999240875244 0.471326321363449097
0.234802380204200745 0.0953168347477912903 0.458511173725128174
0.186961576342582703 0.0529301725327968597 0.479494661092758179
0.264458209276199341 0.0324663817882537842 0.431104719638824463
0.0785780176520347595 -0.232611969113349915 0.519835352897644043
0.104049317538738251 0.174115970730781555 0.505045056343078613
0.233668282628059387 -0.144918680191040039 0.415627896785736084
0.188002750277519226 -0.181275010108947754 0.443638205528259277
0.230406299233436584 -0.0692935064435005188 0.444278419017791748
0.353697717189788818 0.00694219116121530533 0.299699306488037109
0.276136487722396851 -0.077544383704662323 0.389656722545623779
0.378123372793197632 -0.0307020917534828186 0.207004204392433167
0.214483141899108887 0.00100247131194919348 0.465583175420761108
0.082468762993812561 0.228906899690628052 0.516852796077728271
0.0806432291865348816 0.134499520063400269 0.593985974788665771
0.0988220274448394775 0.118686266243457794 0.564250946044921875
0.0680949985980987549 0.16054968535900116 0.61148679256439209
0.112603582441806793 0.404051721096038818 0.465747535228729248
0.168190807104110718 0.429395824670791626 0.473477452993392944
0.218288078904151917 0.433322906494140625 0.466313719749450684
0.260804206132888794 0.423151880502700806 0.448183983564376831
0.289796561002731323 0.4039764404296875 0.423083186149597168
0.308863788843154907 0.333359450101852417 0.367333084344863892
0.404634535312652588 0.223938688635826111 0.252214491367340088
0.28033408522605896 0.279007047414779663 0.399677038192749023
0.243361905217170715 0.268102765083312988 0.42567482590675354
0.197438091039657593 0.269557684659957886 0.441558688879013062
0.154556140303611755 0.279240995645523071 0.446833819150924683
0.121813707053661346 0.292065322399139404 0.446949094533920288
0.0978219658136367798 0.304342746734619141 0.449268221855163574
0.412327617406845093 0.214580699801445007 0.224204316735267639
0.0968494191765785217 0.105839714407920837 0.550209343433380127
0.0616421811282634735 0.224335834383964539 0.558153212070465088
0.0586197972297668457 0.13552740216255188 0.621140658855438232
0.0406775213778018951 0.117020964622497559 0.50346750020980835
0.0578199997544288635 0.127007380127906799 0.610854685306549072
0.0878789573907852173 0.0920278504490852356 0.53179091215133667
0.0347343571484088898 0.114783883094787598 0.513129770755767822
0.0298647377640008926 0.098991692066192627 0.569197297096252441
0.102244995534420013 0.337033987045288086 0.435844630002975464
0.0797954946756362915 0.326806187629699707 0.450679421424865723
0.0666106715798377991 0.319114416837692261 0.468841403722763062
0.256587505340576172 0.355176329612731934 0.412054896354675293
0.285869866609573364 0.37206876277923584 0.405457019805908203
-0.196736663579940796 0.356926143169403076 0.270799696445465088
-0.157674774527549744 0.358315110206604004 0.274144202470779419
-0.19771227240562439 0.390912383794784546 0.282081454992294312
-0.234195813536643982 0.35418352484703064 0.287908375263214111
-0.187024906277656555 0.307932585477828979 0.449541479349136353
0.200775966048240662 0.363575160503387451 0.272553682327270508
0.238634318113327026 0.362436980009078979 0.29240146279335022
0.191426143050193787 0.38118213415145874 0.457899183034896851
0.161247983574867249 0.363645583391189575 0.273670732975006104
0.191740870475769043 0.3151683509349823 0.449584722518920898
